16.667000	4.677000	8.903000
15.594000	4.525000	8.821000
15.656000	4.102000	8.566000
14.436000	4.568000	8.446000
16.736000	5.173000	10.259000
15.786000	4.690000	10.232000
15.585000	5.287000	11.119000
14.627000	5.086000	10.967000
14.593000	6.385000	10.743000
14.436000	6.584000	10.903000
13.366000	6.465000	11.422000
13.138000	7.110000	10.921000
12.429000	7.458000	11.128000
12.939000	8.483000	10.881000
12.704000	8.380000	10.123000
14.046000	9.331000	10.826000
13.918000	8.316000	9.442000
15.339000	8.805000	10.817000
14.854000	7.322000	9.754000
15.540000	7.427000	10.863000
17.713000	4.845000	8.086000
16.669000	4.346000	8.056000
17.594000	4.473000	6.687000
16.656000	4.267000	6.617000
18.400000	3.258000	6.291000
17.556000	3.167000	6.099000
19.571000	3.126000	6.619000
18.739000	3.122000	6.413000
17.961000	5.643000	5.794000
17.097000	5.604000	6.059000
17.747000	2.344000	5.567000
16.984000	2.262000	5.293000
18.427000	1.258000	4.888000
17.721000	1.193000	4.617000
18.106000	1.225000	3.414000
17.481000	1.161000	3.119000
16.975000	0.945000	3.029000
16.486000	0.627000	2.657000
18.090000	-0.061000	5.611000
17.373000	-0.146000	5.289000
18.622000	-0.089000	7.033000
17.688000	-0.118000	6.777000
18.645000	-1.282000	4.883000
18.101000	-1.333000	4.660000
19.917000	0.301000	0.558000
19.658000	1.128000	0.318000
21.246000	0.586000	0.908000
20.761000	1.892000	0.771000
19.001000	1.400000	1.111000
18.401000	1.787000	0.882000
19.105000	1.523000	2.572000
18.408000	1.742000	2.347000
19.304000	2.719000	0.385000
18.427000	3.232000	0.356000
18.500000	3.851000	0.974000
17.293000	4.075000	0.883000
19.074000	4.718000	1.909000
17.364000	4.662000	2.146000
17.169000	4.021000	0.589000
16.176000	4.275000	0.087000
18.327000	5.770000	2.451000
16.318000	5.451000	2.630000
16.422000	5.055000	1.145000
15.132000	5.057000	0.567000
16.993000	5.936000	2.070000
15.197000	5.642000	1.839000
18.446000	-1.728000	-0.984000
19.056000	-1.430000	-1.281000
18.402000	-1.795000	0.478000
18.980000	-1.376000	0.185000
19.626000	-1.112000	1.070000
19.923000	-0.315000	0.763000
20.731000	-1.910000	0.710000
21.237000	-0.629000	0.372000
18.440000	-3.243000	0.991000
19.342000	-2.709000	0.848000
17.318000	-4.104000	0.464000
18.529000	-3.871000	0.335000
17.379000	-4.674000	-0.809000
19.130000	-4.823000	-0.490000
16.226000	-4.347000	1.286000
17.183000	-3.994000	0.677000
16.344000	-5.480000	-1.288000
18.394000	-5.909000	-0.967000
15.188000	-5.145000	0.820000
16.447000	-5.071000	0.196000
15.248000	-5.711000	-0.460000
17.044000	-6.028000	-0.630000
17.123000	-2.313000	-3.905000
17.727000	-2.345000	-4.256000
17.818000	-1.207000	-3.257000
18.416000	-1.254000	-3.601000
17.518000	-1.186000	-1.776000
18.059000	-1.152000	-2.137000
16.481000	-0.711000	-1.351000
16.925000	-0.842000	-1.794000
17.431000	0.109000	-3.936000
18.140000	0.024000	-4.386000
17.689000	0.049000	-5.434000
18.737000	-0.020000	-5.782000
18.163000	1.314000	-3.341000
18.627000	1.268000	-3.651000
16.739000	-4.172000	-6.766000
17.681000	-4.958000	-6.606000
16.723000	-4.226000	-5.321000
17.579000	-4.545000	-5.219000
17.676000	-3.199000	-4.734000
18.376000	-3.296000	-4.925000
18.865000	-3.180000	-5.027000
19.530000	-3.171000	-5.304000
17.101000	-5.625000	-4.854000
17.977000	-5.693000	-4.307000
15.722000	-4.451000	-7.580000
16.682000	-4.682000	-7.430000
14.547000	-4.218000	-7.356000
15.635000	-4.184000	-7.073000
16.062000	-5.078000	-8.829000
16.860000	-4.958000	-8.826000
15.085000	-5.424000	-9.819000
15.754000	-4.859000	-9.723000
14.195000	-6.571000	-9.390000
14.837000	-6.053000	-9.583000
13.046000	-6.866000	-10.141000
13.456000	-5.858000	-9.639000
12.195000	-7.908000	-9.767000
12.594000	-6.959000	-9.527000
12.508000	-8.663000	-8.639000
13.119000	-8.240000	-9.357000
13.648000	-8.378000	-7.884000
14.504000	-8.429000	-9.305000
14.493000	-7.330000	-8.262000
15.364000	-7.336000	-9.416000
